-0.063905 0.014648 0.127431
-0.046021 0.030228 0.171783
-0.054928 -0.047399 0.298962
-0.051465 -0.028133 0.165717
-0.024679 -0.023298 0.914417
0.087449 -0.047266 1.025117
-0.033418 -0.004458 0.000377
-0.024495 -0.051096 0.536388
0.039765 0.067998 0.558888
0.079707 0.027795 1.110878
0.056526 0.016259 0.104741
0.102436 0.032460 0.915185
0.025318 0.073457 0.462519
-0.133092 -0.021006 0.039450
0.046066 0.051728 0.460060
0.055091 -0.008368 0.201495
0.008533 0.123929 1.007952
0.071360 0.015049 0.557355
0.024919 0.048944 0.188564
-0.118014 0.071142 0.004324
0.126781 -0.063469 0.873223
0.052740 -0.017956 0.537451
0.025793 0.030177 0.528639
0.015375 -0.071882 0.188233
-0.023935 -0.030336 0.386630
0.054901 0.056902 0.331484
-0.091969 -0.014500 0.094630
0.132268 -0.043465 0.835784
0.106147 0.027068 0.982434
-0.050167 -0.008566 0.525916
0.110211 -0.013228 0.981517
0.057099 0.032128 0.701181
0.077140 -0.040229 0.981222
0.046203 0.100956 0.350935
-0.143868 0.009627 0.023857
0.021960 0.038403 0.686799
0.048426 0.080501 0.374339
-0.027513 0.114205 0.364215
0.078464 -0.049343 1.029913
-0.126336 -0.026966 -0.000002
0.024911 0.010221 0.345902
0.057792 0.039053 0.940078
-0.018264 -0.085180 0.035253
-0.010656 0.014523 0.526813
0.070199 -0.051258 1.034123
0.038662 -0.055167 1.013412
0.045288 -0.060141 0.607837
0.030094 0.003209 0.988453
0.126706 -0.037980 0.813592
0.066684 -0.027102 0.569866
-0.094826 -0.041460 0.080892
-0.021042 0.024652 0.141000
-0.026532 0.073769 0.060378
0.049875 0.015132 0.277155
-0.016530 -0.123825 0.351763
-0.049805 0.073115 0.046640
0.107602 -0.013847 0.699547
-0.075302 -0.078870 0.011615
0.051845 0.033688 0.863411
0.149010 -0.028801 0.934850
-0.049160 -0.010082 0.357369
0.031712 0.093302 1.085716
0.054466 -0.013284 0.129995
-0.009261 -0.054536 0.498355
0.038223 -0.034206 0.442891
-0.054831 0.001204 0.262303
-0.033870 -0.010614 0.000325
-0.054969 0.011689 0.746977
0.048726 0.103703 1.069144
-0.044016 0.069195 0.968865
-0.052812 0.005378 0.316900
-0.071137 0.024985 0.115452
0.031448 0.045716 0.000816
0.049521 -0.073480 0.352226
0.024592 0.047572 0.750285
0.026882 0.009875 0.346202
0.026666 -0.078827 0.215788
0.039246 0.040856 0.947285
0.008222 -0.036624 0.996675
0.138638 -0.036810 0.931148
-0.029405 -0.002367 0.990424
0.015758 0.067571 0.906769
-0.054241 0.013616 0.744269
0.064303 0.053259 0.938539
0.049543 0.082208 0.579752
0.042823 -0.014007 0.528026
0.128289 -0.070748 0.915324
-0.018287 -0.035353 0.873845
-0.144742 -0.024055 0.000000
0.132979 -0.061664 0.933693
-0.016503 0.091732 0.869945
0.047114 -0.050104 0.024613
-0.052227 -0.025555 0.485931
-0.050571 -0.018434 0.811562
-0.010031 -0.068122 0.175168
-0.025993 -0.036019 0.677128
-0.006864 0.054990 0.525752
-0.022307 0.103162 0.939387
0.040122 0.038193 0.770062
0.100458 -0.032861 0.862330
-0.009405 0.099730 0.903352
0.004737 -0.084276 0.000102
0.138532 -0.017150 1.072108
-0.095157 0.063706 0.047458
0.125947 0.026331 1.098888
0.112352 -0.022975 0.611360
0.033137 -0.069951 0.620851
-0.038367 0.039496 0.151266
-0.006847 0.100163 0.904204
0.097170 -0.010211 0.657335
0.119159 -0.071733 0.944361
0.137360 -0.032871 0.847917
0.147917 -0.019377 0.898112
0.065541 -0.020723 0.024325
0.130782 -0.073702 0.958965
0.054412 0.098376 0.613939
0.015723 -0.023928 0.929135
0.086436 0.018053 0.674101
0.054305 -0.003611 0.830811
-0.054848 -0.015166 0.195288
-0.057767 -0.004721 0.471613
0.053148 -0.008401 0.533141
0.041845 0.049915 1.076693
0.119116 0.007988 0.683879
0.017814 -0.044792 1.001750
0.122773 -0.065993 0.915310
-0.149839 -0.030926 0.008894
0.032728 -0.043502 0.776288
0.014561 0.014257 0.336971
0.028463 0.049625 0.129237
0.059753 0.050808 1.035320
-0.055062 0.004551 0.343338
-0.054365 -0.029637 0.219737
-0.026863 -0.043011 0.829400
0.019891 0.086466 0.613354
0.140688 0.005708 1.001554
0.051346 -0.098938 0.621546
0.105817 0.028872 0.981679
0.053746 0.004051 0.381536
0.028377 0.001590 0.000982
0.018097 0.117256 0.978396
0.127320 -0.003864 0.883124
0.023598 -0.042547 0.592187
-0.046215 0.009720 0.917105
0.054936 -0.020334 0.331517
0.026295 0.018404 0.001052
-0.058374 0.009078 0.540818
0.109523 0.005791 0.981534
-0.054699 0.006246 0.803738
0.026723 -0.071065 0.017922
0.030026 0.077258 0.869873
0.039641 0.076831 0.873248
0.055091 -0.008401 0.201626
0.069668 -0.107267 0.631184
0.111977 -0.018343 1.109388
-0.037552 0.073916 0.449250
0.089978 -0.078207 0.707118
0.055076 -0.011155 0.216606
0.017405 -0.013760 0.000763
-0.037208 -0.013871 0.342965
-0.022556 -0.026807 0.140000
-0.000504 0.128003 0.323017
0.032521 0.045943 0.131878
0.135150 -0.022101 1.002913
-0.044954 0.064413 0.908999
0.032059 -0.006982 0.314825
0.126970 0.005522 0.668672
-0.033467 -0.016832 0.349074
0.016855 -0.083736 0.693706
0.058443 -0.027003 0.059091
-0.017377 -0.009880 0.384630
-0.018909 0.029999 0.777714
0.121732 -0.034197 0.860050
0.083949 0.019394 0.678614
0.081532 -0.040861 0.597472
0.041490 -0.046259 0.609674
-0.123276 0.007541 -0.000002
0.048938 0.074155 0.383510
-0.040737 0.046825 0.128309
-0.030228 -0.048181 0.488669
0.041075 0.035897 0.515573
0.052039 -0.052948 0.247658
0.001282 0.048605 0.654871
0.060528 0.037496 0.960351
-0.111082 0.019056 -0.000005
0.033218 0.076667 0.442949
-0.117407 -0.008658 0.066582
-0.046557 0.003244 0.907432
-0.025474 -0.108206 0.370773
0.043707 0.033430 0.167724
0.099973 -0.044319 0.998911
0.016763 0.080530 0.019018
-0.049791 -0.061374 0.237622
0.036557 0.103542 1.079360
0.044084 0.032825 0.190339
0.050406 -0.005493 0.953140
0.054254 -0.000935 0.351967
0.001163 0.090917 0.858417
0.044201 0.012569 0.906422
0.059566 0.036880 0.816624
0.001941 0.065390 0.641982
0.036136 0.073187 0.937636
0.052702 0.039387 0.411594
-0.052397 0.015701 0.222038
0.117309 -0.038564 1.064250
0.072505 -0.024844 0.597628
0.027799 0.074656 0.940171
0.000040 -0.023904 0.141000
-0.052857 -0.009870 0.717572
0.052434 0.094539 0.686952
-0.055684 0.043470 0.426283
0.042809 0.054465 0.546548
0.052032 0.062902 0.316475
0.016745 -0.069584 0.183624
0.041694 0.021147 0.001140
0.044566 -0.040351 0.365111
-0.016966 -0.026532 0.910530
0.044818 -0.106463 0.345564
0.045461 -0.024544 0.496476
0.142642 0.004775 1.047991
-0.017838 0.057969 0.555651
0.064725 0.006556 0.055665
0.008778 -0.128512 0.330666
0.054000 0.041896 0.373938
0.049086 -0.051507 0.207871
0.141227 -0.011809 1.048534
0.034969 -0.038739 0.510217
0.036866 0.036547 0.695221
0.065668 0.041428 0.953578
-0.024354 0.053428 0.548909
-0.031769 0.102992 0.385463
-0.003540 -0.039699 0.141000
0.125199 0.013760 0.672788
0.021739 0.123086 0.318763
0.057980 -0.027092 0.062231
0.043010 0.019139 0.881023
0.069826 0.038211 1.042439
-0.049917 -0.029277 0.356100
0.110121 0.041646 0.985568
-0.003814 0.127132 0.317316
-0.013986 0.000623 1.020220
0.126891 -0.008006 0.669370
-0.009068 -0.051319 0.448314
0.028701 0.075091 0.288466
-0.054814 -0.010633 0.319146
0.047600 -0.034887 0.103815
0.010318 0.054291 0.138136
-0.054345 -0.052804 0.297129
0.002271 -0.051687 0.568025
-0.038685 -0.038056 0.141001
0.033097 0.077020 0.569603
-0.027477 0.071049 0.069183
0.082724 0.041521 0.886659
0.129887 -0.061794 0.965040
0.117280 -0.058093 0.888698
0.049939 -0.005837 0.340951
0.110586 0.040780 0.958842
0.026123 0.049681 0.517045
0.050524 0.061315 0.880969
-0.007538 -0.050271 0.826650
0.035907 0.055277 0.291528
-0.031623 0.003840 1.017017
0.102776 0.006418 0.629490
0.016498 0.051822 0.208588
-0.138904 -0.020257 0.000000
-0.040628 0.028003 0.996692
-0.053507 0.023089 0.547531
-0.041935 0.037230 0.768415
0.039081 -0.046461 0.160367
0.018905 0.064507 0.868717
0.104783 0.042904 0.958004
-0.006853 0.048158 0.278470
0.066492 -0.016530 0.984388
-0.104488 -0.028598 -0.000007
-0.044457 0.028206 0.947119
0.058685 0.039988 0.701527
0.003521 -0.067158 0.747945
0.018166 -0.050168 0.507915
0.064421 0.018426 0.643137
-0.047058 -0.049855 0.196013
0.054901 -0.011159 0.161647
0.039510 -0.032221 0.845035
-0.041029 0.035147 0.216762
-0.032686 0.106505 1.055723
0.016839 0.046837 0.000755
-0.121009 -0.056253 0.036051
0.125744 0.000749 0.671657
0.082185 -0.046982 1.070533
0.112149 0.057605 0.688174
0.120201 -0.037473 0.994624
0.124216 -0.030293 1.092509
-0.021066 -0.072317 0.078737
-0.093066 -0.009358 0.094265
0.035410 0.068743 0.683990
0.116190 -0.053353 0.931949
-0.006281 0.116663 1.071868
-0.023346 0.015025 1.068258
0.027484 0.047855 0.532103
0.053629 0.032520 0.389905
0.129354 0.000698 0.658660
-0.008376 0.007123 0.278969
0.050883 0.085453 0.333340
0.055990 0.088012 0.970287
0.065554 -0.020940 0.023757
0.056456 0.003968 0.885926
0.004590 -0.111046 0.277744
0.059252 0.065237 0.978836
0.017723 -0.005420 0.777638
0.035401 0.066786 0.684579
0.125357 -0.015407 0.939899
0.086796 0.042115 1.034559
-0.041236 -0.067183 0.093266
0.056134 0.063272 0.911823
0.000882 -0.076537 0.385840
-0.049243 -0.024621 0.801803
0.114230 -0.034798 0.928591
0.055043 0.003034 1.109177
-0.048591 0.024314 0.525949
0.124754 -0.019760 0.980840
0.097022 -0.066758 0.603299
0.036815 -0.041181 0.141623
-0.006832 0.043832 0.778642
-0.043240 0.101083 0.312608
0.037397 0.028424 0.527901
0.051362 0.045547 1.066099
0.021502 0.053967 0.127410
0.100924 0.050533 0.697234
0.049032 0.114377 1.052518
-0.000836 -0.012651 0.320893
0.035976 -0.109186 0.303798
0.058249 0.067279 0.567420
-0.053579 0.068899 0.334379
0.106047 -0.011456 0.981710
-0.052315 -0.047252 0.116716
-0.012043 -0.050805 0.448169
0.050624 0.081325 0.346324
0.000627 0.122809 1.004370
-0.023989 -0.041937 0.779392
-0.051850 -0.037528 0.191672
0.006819 0.121775 0.998177
-0.024678 -0.050100 0.724919
0.049300 0.044439 0.840176
0.112446 0.016996 0.926526
0.042527 0.017961 0.634967
-0.032560 0.112209 0.306222
0.138433 0.008149 1.089183
0.029567 -0.063974 0.756730
-0.042144 0.052076 0.986447
0.106327 -0.067731 0.694622
0.077507 0.004177 0.928195
-0.010425 -0.035049 0.626724
0.072085 0.013263 0.983280
-0.009862 0.031719 0.527827
0.038419 0.029591 0.255413
0.030947 -0.049318 1.074515
0.029620 -0.058733 0.000590
-0.041162 0.001131 0.780404
0.054348 0.031952 0.956922
0.014994 0.078305 0.042342
-0.045229 0.009804 0.686796
0.053685 -0.016447 0.131270
0.061605 0.001023 0.930360
-0.044140 0.032670 0.156262
0.035511 -0.019932 0.528859
-0.042938 0.033857 0.210418
-0.053491 0.065038 0.371667
-0.023482 0.016089 0.283548
-0.051433 -0.011638 0.710657
-0.054760 0.003913 0.190752
0.064350 0.052203 0.868367
0.005931 -0.031957 0.385690
-0.065797 -0.063309 -0.000017
-0.021096 -0.026360 0.778303
0.040574 -0.052867 0.046532
-0.035545 0.114954 0.349029
0.090724 0.107279 0.637033
-0.003896 0.093590 0.004263
-0.114846 0.069039 0.016057
0.024458 0.061991 0.284124
-0.086819 0.068553 0.037030
0.053538 0.020299 0.809677
-0.026991 -0.012705 1.066464
0.042782 -0.093228 0.357128
-0.026187 -0.043826 0.141000
-0.002665 -0.003355 0.140000
0.073995 -0.109524 0.638812
-0.044274 0.041257 0.808940
-0.054088 0.064630 0.073185
0.131882 0.028387 1.054442
0.045234 -0.073520 0.242547
0.044281 0.030821 0.532274
0.092161 0.031162 0.982321
0.034808 -0.117931 0.336338
0.023978 -0.020842 0.356658
-0.015135 -0.042563 1.013758
0.077922 -0.013400 0.665637
-0.056763 0.026014 0.420797
-0.051411 0.019364 0.147203
-0.025057 -0.011316 0.961955
0.003826 -0.053307 0.456363
-0.036191 -0.073889 0.371864
-0.059229 -0.079285 -0.000018
0.060772 0.026907 0.679807
0.009340 -0.045757 0.432781
0.023512 0.001370 1.027257
-0.024201 -0.008646 0.140000
-0.036126 -0.093190 0.366499
0.039410 0.053495 0.049474
-0.017830 -0.060278 0.119851
-0.015109 -0.003400 1.003565
0.051551 0.048336 0.844183
0.051866 -0.018753 0.536675
0.124421 -0.007773 0.626043
0.111297 -0.005399 0.660256
-0.091175 0.076267 0.005977
0.170685 -0.042548 0.916146
-0.008142 -0.016364 0.140000
0.040355 0.049569 0.690896
0.043250 0.022571 0.141000
0.035207 0.001155 0.140000
0.053015 0.019038 0.416535
0.049309 -0.043349 0.188045
-0.036191 0.095616 0.975891
-0.029982 -0.045673 0.729149
0.026762 -0.002299 1.096887
0.115511 -0.039189 0.817289
0.006831 -0.023504 0.357728
-0.041207 0.111494 0.323003
-0.102633 0.009717 0.083545
0.106217 -0.060610 0.696983
0.082906 0.005169 0.610521
0.054536 -0.025573 0.093854
0.150526 -0.061705 0.955765
0.054725 0.015863 0.338020
0.072522 -0.037294 0.969483
-0.122036 0.002751 0.061804
0.037382 0.029958 0.257183
-0.066201 0.073445 0.034211
0.142229 -0.009451 0.914541
0.038379 0.122340 1.055418
-0.044950 0.028739 0.940940
0.014311 0.052941 0.779676
0.022113 -0.006789 0.994897
0.091037 0.010372 0.635179
-0.051360 0.073891 0.381532
0.030155 -0.069072 0.377847
0.018234 -0.004346 0.528467
0.028715 -0.001240 0.776813
-0.025143 -0.067650 0.186038
0.060078 0.090355 1.048929
0.040381 0.003644 1.102877
-0.026216 -0.001483 0.526461
-0.044402 0.012172 0.619268
-0.035114 0.047194 0.520968
-0.008085 0.004093 0.000672
-0.015175 0.111331 0.966595
0.056474 0.050500 0.893774
0.033333 0.072621 0.837554
0.106014 0.028748 0.602621
0.006112 -0.118248 0.367323
0.067617 0.018625 0.552630
-0.082636 0.073010 0.024417
-0.050114 0.039688 0.500800
0.115585 0.051747 0.685042
-0.034402 -0.086085 0.246834
-0.021333 -0.115720 0.364321
-0.015120 0.055994 0.612057
0.019662 0.042867 0.704735
-0.063472 -0.049740 -0.000017
-0.025107 0.040834 0.284199
0.079752 -0.049089 1.043339
-0.106735 0.066436 0.030685
0.008436 0.043004 0.692593
0.048058 0.057948 0.306693
0.100181 0.009035 0.640669
0.161635 -0.070883 0.880591
0.155529 -0.025481 0.911768
0.046359 0.003370 0.303572
-0.106819 -0.050601 0.058546
0.019191 -0.047059 0.778575
0.087879 -0.035169 0.930867
0.026879 0.018665 0.777010
0.008751 -0.074710 0.670358
-0.053665 -0.014452 0.409981
-0.033177 -0.000111 0.991209
0.022047 -0.115256 0.364718
-0.046352 0.095311 0.369766
-0.056290 0.036699 0.446252
-0.056177 0.016919 0.394297
0.125838 0.033203 0.668982
0.054621 0.078647 0.941370
0.121520 -0.036974 1.011532
0.094917 -0.042794 1.079999
0.057805 -0.032017 0.046597
0.056731 0.024434 0.903749
0.004051 -0.007062 0.661103
0.025682 0.029160 0.284750
0.019784 -0.038981 0.613743
0.068102 0.041659 0.953316
0.069544 0.013663 0.862586
0.010899 0.071974 0.651579
0.014669 -0.016252 0.336090
-0.011559 0.011469 1.063378
0.018448 0.022698 1.082057
-0.032324 0.102163 0.981519
-0.017946 -0.023984 0.526646
-0.029680 0.014303 0.776770
0.049031 -0.034550 0.357353
0.076455 -0.046130 0.989340
0.124248 0.038752 0.672128
0.013214 0.110615 0.947739
0.049360 -0.076075 0.278545
-0.035058 0.022125 0.290809
0.122071 -0.047750 0.625314
0.004050 0.066674 0.278469
0.104009 0.094323 0.684978
-0.021261 0.046391 0.221982
0.030113 0.044329 0.529796
0.120073 -0.093069 0.646478
-0.025305 -0.010852 0.963413
0.008627 0.024881 1.035407
0.077909 -0.045964 0.988825
0.001347 -0.080823 0.052627
0.007143 0.026603 0.657359
0.074697 0.049042 0.885700
-0.049319 0.042138 0.855769
0.004995 -0.021042 0.942312
0.047576 0.081173 0.382787
-0.054873 -0.036352 0.326901
0.001704 -0.007108 0.387531
0.087309 -0.016846 0.589158
0.044732 0.101245 0.357865
-0.035337 0.025900 0.278115
0.027607 0.094120 0.410765
0.113949 -0.041148 1.047471
0.033187 -0.084461 0.372372
-0.024655 -0.089695 0.002953
-0.015121 0.079061 1.081979
0.042148 0.087415 0.306033
0.014654 -0.076142 0.652072
0.103502 0.047239 0.695805
0.123244 -0.025726 0.856695
0.087485 -0.041421 0.724960
0.043977 0.074707 0.916607
-0.028743 0.009124 0.671041
0.100670 0.011811 0.944499
0.115676 0.039817 1.061456
0.089270 0.041898 0.925936
0.085937 0.004746 0.610515
-0.043583 0.031396 0.723116
0.074382 0.035824 0.936055
0.037684 -0.050006 0.000757
0.034721 -0.023316 0.378475
0.086493 -0.010777 0.667808
0.007379 -0.054522 1.024565
0.079070 -0.011702 1.116395
-0.050139 -0.056912 0.228574
0.096465 -0.005048 1.113078
0.068268 -0.000655 0.028231
-0.057044 -0.000223 0.437074
0.028053 0.003911 0.988674
-0.059102 0.000972 0.518896
0.087366 0.003138 0.577145
-0.040950 -0.031916 0.826495
0.050749 -0.017789 0.814854
0.134502 0.019259 0.936716
0.058684 0.040290 0.990933
0.016439 -0.077005 0.042685
-0.091937 -0.001298 0.096867
0.058073 0.107883 0.660410
0.002639 -0.081568 0.206295
0.092149 0.030045 0.584927
0.084862 0.042469 0.997532
-0.029947 0.021037 0.000606
0.025780 0.002113 0.372403
-0.035075 0.025984 0.527239
0.061114 -0.010153 0.080902
0.046941 0.011923 0.001186
-0.032154 0.084089 0.900127
-0.004829 -0.052150 0.140000
0.026279 -0.018590 0.777238
0.071450 0.084861 0.591652
-0.036112 -0.039560 0.813811
-0.002295 0.002741 1.084353
0.075406 0.024142 0.695753
0.097449 -0.106226 0.646688
0.122378 0.008207 0.981750
-0.053396 0.021079 0.805994
0.047803 -0.001916 0.359818
-0.042614 -0.089529 0.271504
0.052311 -0.097667 0.618968
0.089992 -0.061958 0.715632
0.052520 0.011665 0.621580
0.063709 -0.034258 0.598157
0.017143 0.052009 0.919239
-0.070037 -0.077692 0.037334
0.058686 0.063953 0.947454
0.106457 0.025242 0.904175
0.052245 -0.037643 0.058622
-0.002185 -0.077472 0.063425
0.067364 -0.016954 0.917627
-0.137848 0.027629 0.029900
0.034508 0.016027 1.098761
-0.024470 -0.049301 0.780547
0.151952 -0.054705 0.935405
-0.008536 -0.029362 0.141000
0.079403 -0.007995 0.739460
0.141842 -0.007917 1.033515
0.014148 -0.076140 0.054981
0.006617 0.117934 0.980699
-0.044043 0.051158 0.118012
-0.008894 -0.038939 0.656579
0.013186 -0.063678 0.106560
0.052650 0.033302 0.754153
0.015804 -0.084719 0.219623
-0.039663 0.050404 1.017956
0.133779 0.019743 1.091953
0.066459 -0.015491 0.027782
0.051140 -0.081277 0.323333
0.056463 0.062151 0.935038
0.054157 0.026833 0.365176
0.070588 -0.009587 0.883384
0.124165 -0.029583 1.094660
0.029471 0.064732 0.039883
0.026651 0.088942 0.861791
0.035210 -0.088761 0.253093
-0.002978 -0.036155 0.627836
-0.138155 -0.001572 0.034285
0.059919 0.057359 1.041608
-0.053064 -0.070633 0.339138
0.103241 -0.022881 0.926978
0.057341 0.016758 0.954273
-0.055769 -0.017636 0.495691
-0.104170 -0.023457 -0.000007
-0.054696 -0.004400 0.156318
0.123253 0.010385 0.908350
-0.046709 0.000906 0.776497
-0.053708 0.045527 0.457511
0.096843 0.043510 1.033985
0.057865 0.011974 0.998198
0.021715 0.001671 0.527548
0.129361 0.011934 0.643391
0.086105 -0.027180 0.889312
-0.042156 0.038363 0.556394
-0.050020 0.039562 0.871229
-0.020376 -0.027838 0.140000
-0.002473 -0.021189 0.348668
0.027947 0.047212 0.207470
-0.063802 -0.052315 -0.000017
-0.039259 0.104258 1.038140
0.002611 -0.028083 0.643141
0.145533 -0.071191 0.941178
0.073643 0.025760 0.710376
0.089947 -0.023209 0.863981
-0.040873 0.076568 0.040782
-0.051897 -0.083691 0.009703
0.096806 0.074152 0.599900
0.008069 0.001047 1.028492
0.137578 -0.067645 0.859558
0.047359 -0.025223 0.815714
0.119377 0.062793 0.622355
0.053031 0.082644 0.944482
0.051532 0.069346 0.907517
-0.038866 0.033914 0.233371
0.065635 0.031048 0.820257
0.054608 0.026514 0.965184
0.053170 0.000421 0.321591
-0.054883 -0.033350 0.308227
0.054204 -0.018285 0.664370
0.053609 0.029821 0.390516
0.025947 0.036971 0.684743
-0.014601 -0.005264 0.996725
-0.055228 -0.008920 0.779020
-0.014455 -0.059970 0.121584
0.059957 0.079979 0.580948
0.001821 -0.003965 0.140000
0.040435 0.036970 0.156144
-0.045090 -0.097416 0.299295
0.016516 0.029797 0.000973
0.056225 0.030468 1.087510
-0.040713 0.028386 0.000566
-0.030795 0.001995 0.671821
0.034563 -0.015542 0.375837
0.110211 0.005928 0.942000
0.034291 0.094565 1.084474
0.051280 0.027658 0.670649
0.103562 -0.047226 0.897807
0.139728 0.014088 1.023132
0.058242 0.058436 0.931150
-0.029128 -0.006219 0.527389
-0.099766 -0.074632 0.004581
0.079804 0.016410 0.649997
-0.028106 -0.010887 1.011473
0.045601 0.050516 0.465218
0.069911 0.013379 0.949360
0.117609 -0.095780 0.651127
0.039070 -0.035505 0.826961
0.023096 -0.054005 0.125163
-0.044890 -0.023873 0.834071
0.028586 0.043843 0.777128
-0.115489 -0.067599 -0.000004
0.015494 -0.039674 0.415625
0.091976 0.002099 0.721946
0.105150 -0.066236 0.608057
0.036316 -0.060186 0.027259
0.035955 0.057511 0.481480
0.022395 0.099705 0.290504
-0.044932 0.002331 0.353174
0.000464 -0.008486 0.777210
0.090728 0.043450 1.012271
0.057438 0.008219 0.112692
-0.016558 -0.031956 0.140000
-0.010202 -0.061958 0.711420
0.011838 -0.092411 0.235483
0.038219 -0.030873 0.141001
0.054063 0.009149 0.178903
-0.033245 0.056234 0.807989
-0.030774 0.008699 1.061028
0.074992 0.052371 0.922185
-0.003944 -0.059067 0.664172
0.087071 -0.001210 0.728918
0.075679 -0.047169 0.991243
-0.039617 0.037109 1.013365
0.146888 -0.029247 0.868099
0.014602 -0.077272 0.723165
0.051451 -0.016280 0.814234
0.002023 -0.054754 0.528633
0.064704 0.035679 0.862788
0.048368 -0.022533 0.822251
-0.010170 -0.078883 0.201346
0.055379 0.031557 0.067034
-0.030233 -0.012446 0.378618
-0.090083 0.003657 0.099062
0.006506 -0.053675 0.528653
0.050870 0.029295 0.108717
-0.054138 0.009826 0.731057
0.026607 0.062821 0.676690
-0.050247 -0.016339 0.600119
0.037855 -0.010006 0.680200
0.044759 0.036919 0.499676
0.049405 -0.044660 0.192602
0.033894 -0.066312 0.004358
0.066332 -0.060472 0.737998
0.130088 -0.006895 1.102321
-0.005166 -0.096600 0.242740
0.015501 0.048354 0.140000
-0.046081 0.061494 0.938623
0.026357 -0.049741 0.134742
0.061036 0.016821 0.933941
0.093387 0.043848 1.003171
-0.035944 0.003315 1.045434
-0.014120 -0.058223 0.710485
0.025950 0.034731 0.679462
0.068120 -0.026407 0.752380
0.137582 0.004705 0.980231
0.053454 0.028491 0.948935
-0.038309 0.004106 0.355836
-0.022141 0.100738 0.926109
-0.117373 0.068583 0.000024
-0.120156 -0.005033 -0.000003
0.045908 -0.027013 0.827537
0.052832 0.012560 0.251672
-0.014072 -0.005710 0.385561
0.031568 -0.044341 0.783069
0.046957 -0.006989 0.687831
-0.006507 0.036179 0.650566
0.055067 -0.035973 0.261207
-0.040473 -0.018332 0.885495
-0.009988 0.063472 0.564039
0.058455 0.056792 0.865362
0.053749 0.067509 0.886137
0.043067 -0.026101 0.645892
0.018873 -0.077134 0.000428
0.097468 0.093250 0.690701
-0.035264 0.084189 0.000043
0.118740 -0.051126 0.681469
-0.023247 0.077047 0.834670
0.010051 0.000069 0.280678
0.058022 0.108030 0.644246
0.034439 0.074449 0.846732
0.138603 0.005514 0.980180
0.133353 0.024383 0.993533
0.032516 0.020476 0.776938
0.049090 -0.014507 0.502423
-0.054156 -0.010254 0.152227
-0.048249 -0.092773 0.342814
0.109094 -0.053501 0.908297
0.047155 0.016629 0.875560
0.046342 0.029710 0.674518
0.049606 0.047759 0.847704
-0.004114 -0.051231 0.575541
0.017739 0.004645 0.989755
-0.048925 0.011934 0.882830
-0.016534 0.027632 0.280554
-0.013400 0.112467 0.968590
-0.064688 0.075492 0.028137
0.007622 -0.104311 0.261497
0.062555 0.031601 0.013830
0.159981 -0.057460 0.940974
-0.020869 0.054995 0.545204
0.103851 0.036721 0.696156
-0.040360 0.059582 0.480768
0.080081 -0.004341 0.596093
0.057592 -0.030924 0.558977
0.041251 0.039905 0.732545
0.059712 -0.092335 0.608512
0.061397 0.004688 0.543939
0.047297 0.085194 0.927065
-0.021707 -0.107200 0.278876
-0.044738 -0.015836 0.527041
0.101431 -0.104331 0.642144
-0.044928 0.017873 0.936971
0.052983 -0.005483 0.387640
0.024514 -0.024257 0.653833
0.082703 0.040804 1.053969
0.046297 0.081758 0.392697
-0.042498 0.020613 0.778075
0.002008 0.006667 0.528098
0.062056 0.029025 0.026111
0.126949 0.033814 1.037222
0.008547 -0.049849 0.446210
0.070078 0.038202 1.045498
0.056998 0.009713 0.946808
-0.025640 0.110741 0.375630
0.055067 0.109597 1.026361
-0.001517 -0.006522 0.997582
0.055033 0.104035 0.671104
-0.018419 -0.001174 0.527626
0.082705 0.035364 1.094293
0.070085 0.010911 0.750327
-0.018935 -0.072108 0.191965
-0.042806 0.016188 0.141000
-0.041948 -0.022039 0.382136
-0.056350 0.015387 0.402640
0.124602 0.030728 1.090441
0.011734 0.077362 0.638488
0.041136 0.049973 0.060589
-0.013528 -0.049092 0.824499
0.048731 -0.023223 0.784526
-0.143879 0.001084 0.024367
0.099769 0.055188 0.597275
0.081730 0.020854 0.685207
-0.017034 -0.097142 0.378476
0.053729 0.034817 1.035288
0.015999 -0.022419 0.654445
0.075736 -0.001951 0.862304
-0.006662 0.002339 0.650359
-0.079798 -0.019483 -0.000013
0.010852 0.118331 0.982433
-0.010682 0.057092 0.625016
0.098375 -0.067968 0.703895
0.000878 0.035963 0.269284
0.034624 0.037698 0.230013
-0.032615 0.081711 0.028588
-0.027452 0.006065 0.527418
0.079557 -0.021791 0.738331
0.069449 -0.021323 0.638371
0.137472 0.005213 1.093594
0.069722 0.054738 0.888046
-0.089421 0.067140 0.000130
0.048687 -0.029732 0.149891
0.051475 -0.020077 0.136256
0.038635 0.030464 0.527929
0.060491 -0.030772 0.573824
0.058019 0.048965 0.935350
-0.035679 -0.082469 0.042410
0.015469 0.063637 0.917758
-0.023002 0.089090 0.009555
0.031464 0.017538 0.287873
0.080345 0.013075 0.928060
0.060356 0.091504 1.006643
-0.042011 -0.000310 0.300208
-0.054894 0.002018 0.201344
0.047157 0.034814 0.949664
-0.033217 0.086456 1.063264
0.016200 0.054961 0.922316
-0.057175 -0.003566 0.526763
0.009094 0.054070 0.167961
0.022685 0.029655 0.141000
0.127265 -0.064772 0.876619
-0.038714 0.025257 0.688529
-0.049232 -0.022404 0.721641
0.026538 -0.046276 0.541006
-0.044108 0.011206 0.527053
0.084186 -0.029671 0.903601
-0.040355 -0.032427 0.599267
0.055415 0.012376 0.847549
-0.045027 -0.036338 0.542004
0.058161 0.027322 1.101197
-0.011751 0.105582 1.079842
-0.050396 0.027549 0.869860
-0.026401 0.015850 1.060230
-0.043874 0.040491 0.519711
-0.027021 -0.038151 1.025918
0.011112 0.037041 0.676144
-0.047971 0.095473 0.357776
0.089734 0.000766 0.600689
0.032803 -0.052290 1.006465
0.135628 -0.022321 1.015817
0.113961 -0.056450 0.614723
0.112669 -0.097315 0.666626
-0.031142 0.096294 0.944000
0.021606 0.075735 0.019589
-0.025833 -0.069104 0.190572
-0.105137 0.053073 0.000175
0.088732 -0.044167 0.981362
0.061310 0.014461 0.070583
0.043227 0.020840 0.141000
0.045044 0.040691 0.489840
-0.012515 -0.027897 0.909864
-0.034022 -0.117322 0.320291
0.115795 -0.086331 0.624932
0.062077 0.091154 0.695207
0.103496 -0.094264 0.683418
-0.022606 0.005475 1.031479
0.018736 0.080309 0.008826
0.091231 0.060799 0.589607
0.067749 0.033492 0.850589
0.017319 0.082478 0.003634
0.052573 -0.025343 0.173127
0.107045 -0.039644 1.084819
-0.033727 0.093462 1.062846
-0.031891 0.041651 0.220387
0.112944 0.040728 1.064847
-0.140808 0.025657 0.025307
0.031219 0.075162 0.449900
-0.007040 -0.065153 0.166369
0.031001 -0.076623 0.375700
0.069163 -0.034481 0.979550
0.088090 -0.017892 0.941768
0.051618 -0.020984 0.151354
-0.006027 -0.054912 0.515658
-0.019478 0.067356 0.087521
-0.052905 -0.039055 0.347575
0.030117 0.003611 0.777054
0.058834 0.039481 1.001397
0.117786 0.001787 1.108263
0.124081 0.060349 0.630996
0.027088 0.072057 0.009720
-0.035234 -0.086666 0.013638
-0.019573 -0.042141 0.779317
0.081490 -0.039049 0.732734
0.044149 -0.053751 1.008894
0.041674 -0.038405 0.542819
0.061863 0.091333 0.596515
-0.004170 -0.030400 0.635670
0.051498 -0.000799 0.962969
-0.059302 -0.079690 0.038929
-0.034718 -0.031729 0.778931
0.046506 0.000920 0.356795
0.028967 0.110805 0.301361
-0.028457 -0.023777 0.141000
0.117629 -0.036145 0.928898
0.018256 0.031088 0.141000
-0.035406 -0.011718 1.049315
-0.031653 0.020851 0.287872
0.112277 0.015895 0.895279
0.015212 0.076566 0.652320
-0.051701 0.079735 0.342204
0.052795 -0.082956 0.607995
0.023157 -0.051475 0.774066
0.097619 -0.025255 0.941733
0.084196 -0.017861 0.982731
-0.107138 -0.027667 -0.000006
0.055018 -0.052826 0.322043
-0.014410 0.067117 0.494652
0.036453 0.034918 0.938901
0.056225 0.107973 0.654015
-0.056919 0.034191 0.417197
0.052473 -0.017463 0.773589
-0.055722 0.030110 0.371377
0.100454 0.008462 0.637865
-0.049392 0.076248 0.404495
0.040634 0.077218 0.902574
0.045747 0.050831 0.834468
-0.055805 0.008475 0.377828
-0.052374 0.000410 0.000243
0.031347 -0.043710 0.618525
0.126340 0.001510 0.650509
0.106596 -0.027796 0.982500
0.021707 -0.005234 0.302220
0.056680 0.066200 0.565529
-0.071210 0.036333 0.109210
-0.054069 0.050815 0.323883
0.027473 0.047566 0.176809
-0.042500 -0.012508 0.368216
-0.005441 0.055983 0.531881
0.051939 0.009008 0.140000
0.028813 -0.062369 0.379682
0.020471 0.057917 1.087170
-0.034945 -0.048991 0.375145
-0.048933 0.003374 0.614929
-0.002161 0.045704 0.000714
0.080604 0.012402 0.633815
0.040508 0.032426 1.001744
0.021564 0.070159 0.053388
-0.055084 0.055194 0.362750
0.083419 -0.018513 0.627977
-0.055673 0.024307 0.369739
-0.010462 0.117455 1.068521
